# .PCD v0.7 - Point Cloud Data file format
VERSION 0.7
FIELDS x y z
SIZE 4 4 4
TYPE F F F
COUNT 1 1 1
WIDTH 1279
HEIGHT 1
VIEWPOINT 0 0 0 1 0 0 0
POINTS 1279
DATA ascii
9511.209961 -4659.899902 577.000000 
9691.540039 -4641.899902 565.500000 
9746.958008 -4702.268555 568.643188 
9802.809570 -4691.427734 561.535095 
9763.669922 -4768.100098 567.000000 
9799.730469 -4623.899902 556.000000 
9619.410156 -4479.600098 557.000000 
9810.380859 -4509.614746 550.817566 
9736.620117 -4560.725098 558.250000 
9727.599609 -4479.600098 553.000000 
9857.059570 -4466.859863 540.087097 
9841.578125 -4572.592285 547.909973 
9529.240234 -5020.600098 569.000000 
9145.351563 -4361.209961 553.407654 
9212.778320 -4339.219238 532.521057 
9125.823242 -4260.810547 515.627930 
9280.612305 -4286.922363 521.040894 
9273.035156 -4378.379395 533.890503 
9157.837891 -4139.463867 496.706909 
9114.496094 -4209.085938 509.496460 
9276.785156 -4209.100098 508.500000 
9330.884766 -4227.150879 513.007385 
9186.620117 -4155.000000 499.000000 
9166.927734 -4252.254395 510.603790 
9397.760742 -4334.257324 535.678589 
9378.684570 -4374.775879 542.279663 
9345.387695 -4268.114258 517.242004 
9443.413086 -4349.399902 538.751038 
9336.238281 -4130.946777 494.476563 
9382.810547 -4225.972168 506.219391 
9443.752930 -4234.822754 503.869171 
9442.286133 -4110.502930 489.859985 
9335.741211 -4347.663574 533.740540 
9404.258789 -4457.588867 547.643311 
9149.425781 -4060.517334 486.375519 
9222.690430 -4064.850098 480.000000 
9310.999023 -4081.219482 483.418091 
9267.767578 -3992.699951 460.000000 
9168.243164 -3848.192627 444.642242 
9230.933594 -3890.578369 436.754059 
9222.313477 -3949.262939 451.641235 
9348.915039 -4028.750000 465.000000 
9403.012695 -4028.774902 464.250000 
9271.348633 -3921.037842 439.346802 
9343.683594 -3939.119141 442.061218 
9282.750977 -3819.122314 406.448883 
9330.879883 -3848.449951 411.000000 
9389.821289 -3911.609863 431.288544 
9366.932617 -3794.394531 388.997864 
9572.037109 -4411.136719 548.816528 
9512.043945 -4320.416504 536.312195 
9543.824219 -4253.081055 516.055298 
9597.889648 -4266.300293 518.595276 
9556.214844 -4178.467773 509.274109 
9522.152344 -4124.346680 495.095001 
9647.877930 -4317.768066 530.137085 
9440.534180 -4151.307129 496.871704 
9697.524414 -4404.578613 549.652771 
9686.599609 -4264.807129 513.021423 
9796.105469 -4420.757813 542.543579 
9804.880859 -4304.104492 507.838013 
9794.286133 -4374.551758 534.252441 
9639.208984 -4162.046875 501.885254 
9713.995117 -4119.013672 489.954926 
9784.585938 -4267.746094 502.917023 
9799.730469 -4209.100098 492.500000 
9870.338867 -4276.937988 497.185394 
9732.111328 -4195.587891 496.750000 
9694.867188 -4351.266113 540.407959 
9626.909180 -4393.249023 549.154480 
9657.108398 -4092.572021 483.657715 
9589.606445 -4018.071533 466.315216 
9545.842773 -4083.193604 480.588867 
9484.157227 -3893.550049 425.250000 
9435.766602 -3858.881104 415.442017 
9521.901367 -3945.375977 440.573456 
9577.178711 -3827.248779 419.487793 
9572.616211 -3872.571777 428.848663 
9511.166992 -4046.845947 472.012543 
9711.697266 -4073.393555 474.198669 
9741.850586 -3955.938477 447.603333 
9673.504883 -3866.500000 430.000000 
9623.640625 -3940.910156 440.735748 
9787.981445 -3914.463867 443.057861 
9726.822266 -3821.517334 420.648071 
9813.300781 -4061.485840 463.553650 
9547.648438 -4371.720215 544.944885 
9488.138672 -4407.966797 546.020752 
9844.223633 -3792.291260 413.188202 
9188.708984 -3793.773193 432.251099 
8433.572266 -3586.196045 424.363251 
8603.571289 -3659.006104 454.205353 
8552.955078 -3607.530273 437.372375 
8513.071289 -3648.150879 426.808533 
8495.035156 -3707.404297 431.427521 
8538.034180 -3535.131592 434.689667 
8519.410156 -3596.000000 432.000000 
8537.440430 -3451.750000 433.500000 
8465.309570 -3433.699951 425.000000 
8651.333984 -3787.499756 471.878448 
8681.700195 -3650.100098 464.000000 
8789.900391 -3686.199951 467.000000 
8769.962891 -3739.175781 471.617004 
8663.669922 -3600.487549 456.125000 
8606.763672 -3503.760986 437.821350 
8664.169922 -3459.768066 444.753754 
8717.769531 -3577.949951 459.500000 
8645.639648 -3704.199951 464.500000 
8620.122070 -3397.849365 439.766479 
8506.476563 -3338.801514 423.618561 
8451.388672 -3154.396973 374.205505 
8530.959961 -3184.157471 389.970642 
8516.240234 -3283.318359 416.579010 
8627.350586 -3270.762695 410.646027 
8596.779297 -3325.996338 425.614777 
8678.102539 -3355.403564 438.847015 
8753.830078 -3469.800049 451.000000 
8727.257813 -3376.660889 439.799377 
8580.370117 -3177.733643 392.621826 
8649.935547 -3204.644287 398.777252 
8717.769531 -3145.199951 386.000000 
8742.779297 -3082.753662 372.116608 
8780.091797 -3241.887695 419.773743 
8720.353516 -3195.303223 400.967163 
8582.144531 -3363.729980 434.373596 
8699.734375 -3442.725098 446.500000 
8788.234375 -3622.491943 465.067627 
8862.030273 -3614.000000 465.000000 
8834.982422 -3550.924805 457.500000 
8862.030273 -3433.699951 440.000000 
8916.129883 -3614.050049 462.000000 
8919.064453 -3527.314941 454.839355 
8934.156250 -3406.647461 437.249817 
8825.969727 -3487.800049 449.500000 
9006.290039 -3740.250000 464.000000 
9114.490234 -3758.300049 450.000000 
9109.458984 -3663.517822 445.658691 
8979.245117 -3586.975098 452.750000 
8968.724609 -3502.096680 445.594086 
9114.490234 -3578.000000 431.000000 
9044.903320 -3467.486328 429.875519 
9071.716797 -3528.544922 426.426819 
9035.695313 -3601.404053 446.797150 
9024.325195 -3695.199951 456.750000 
8979.655273 -3658.231201 456.795044 
8821.460938 -3352.550049 430.750000 
8726.128906 -3320.321777 431.765015 
8871.791992 -3296.250488 422.681915 
8920.585938 -3312.466064 428.121155 
8776.559570 -3178.782471 400.236664 
8871.205078 -3190.156250 404.737366 
8862.030273 -3109.100098 385.000000 
9006.290039 -3397.600098 431.000000 
8968.496094 -3294.515625 424.446075 
9096.455078 -3397.600098 418.000000 
9060.390625 -3361.600098 422.000000 
8992.487305 -3270.422119 421.588074 
8943.804688 -3209.991699 406.827057 
9060.390625 -3154.199951 393.500000 
9114.487305 -3194.737305 395.750000 
9072.960938 -3264.698242 411.839996 
9006.290039 -3199.250000 404.000000 
8900.984375 -3706.673584 470.275024 
8833.633789 -3751.758057 472.695343 
8483.335938 -3064.017578 345.996887 
8537.357422 -3037.036621 347.996490 
8444.723633 -2954.616943 312.242584 
8519.410156 -2955.875000 321.000000 
8483.341797 -2874.705566 293.001892 
8479.619141 -2792.312744 267.557587 
8557.500977 -2884.898438 306.202850 
8591.540039 -2942.325195 327.750000 
8559.451172 -2814.252686 291.377625 
8629.209961 -3127.477051 379.383179 
8701.075195 -3003.822754 356.423462 
8716.659180 -3039.929199 365.201996 
8789.880859 -2982.898926 358.498474 
8645.639648 -2856.699951 312.000000 
8717.769531 -2892.699951 327.000000 
8629.634766 -3029.783936 358.285126 
8576.244141 -3106.974609 370.798889 
8514.375977 -2754.894043 260.991699 
8567.487305 -2742.598633 266.940216 
8606.716797 -2677.174561 256.880432 
8495.550781 -2666.807861 251.211273 
8545.072266 -2581.531494 238.998688 
8442.957031 -2502.546631 213.273300 
8581.009766 -2628.260986 248.562561 
8502.847656 -2459.540283 217.002335 
8527.030273 -2513.437012 223.951019 
8635.554688 -2770.573486 289.112305 
8717.660156 -2748.577148 290.014893 
8684.859375 -2672.490723 261.580444 
8643.577148 -2493.101807 233.883896 
8688.070313 -2617.314697 246.550629 
8632.281250 -2531.855225 239.002258 
8732.654297 -2461.325684 232.320572 
8514.881836 -2713.980225 257.214844 
8877.045898 -3050.768799 372.830078 
8808.510742 -2931.943359 347.452362 
8898.158203 -3000.985352 365.016510 
8789.900391 -2766.500000 294.500000 
8853.015625 -2811.574951 309.000000 
8862.009766 -2892.628906 335.977570 
8900.123047 -2848.829590 320.751770 
8780.882813 -2838.649902 314.750000 
8957.084961 -2975.257568 358.479828 
9035.423828 -2981.143555 360.128632 
9033.598633 -3049.053711 373.830353 
9096.455078 -3018.949951 364.000000 
8929.246094 -3101.847656 379.419220 
8981.947266 -2853.921143 314.373138 
8970.175781 -2784.529541 301.012177 
9078.418945 -2892.718750 326.008362 
9027.631836 -2813.400391 298.860199 
9064.547852 -2855.483643 308.160980 
9063.832031 -2927.516113 341.838684 
9115.338867 -2962.231201 342.424133 
8764.667969 -2709.833740 280.511566 
8751.515625 -2606.664063 248.616913 
8798.426758 -2653.955566 269.245789 
8926.682617 -2640.192627 270.052917 
8912.745117 -2728.065186 283.852783 
8728.081055 -2498.173096 239.757217 
8877.389648 -2516.321289 240.868774 
8931.959961 -2468.584717 231.615082 
8849.543945 -2603.906006 256.514435 
8808.370117 -2566.381592 245.860092 
8918.283203 -2580.760254 251.457382 
8981.076172 -2705.059814 277.822815 
9036.660156 -2739.284912 281.149933 
9014.515625 -2659.785156 268.229370 
9006.290039 -2496.000000 232.000000 
9003.565430 -2575.432129 248.607010 
9051.375000 -2523.050049 237.000000 
8929.327148 -2772.168213 299.442047 
9101.416992 -2822.796875 289.134979 
8800.642578 -3069.194336 373.955536 
8816.171875 -2478.327393 236.125671 
9150.549805 -3605.024902 426.250000 
9194.124023 -3619.644775 410.855042 
9151.911133 -3688.217285 437.925659 
9289.278320 -3783.621094 395.688538 
9232.805664 -3691.239014 409.348602 
9294.820313 -3704.199951 386.000000 
9131.809570 -3514.851074 418.917999 
9150.549805 -3469.800049 413.000000 
9258.750000 -3578.000000 384.000000 
9222.690430 -3523.850098 394.000000 
9256.594727 -3495.066895 378.459198 
9330.964844 -3677.395996 369.636871 
9457.109375 -3758.300049 385.500000 
9428.840820 -3678.971680 360.019257 
9374.529297 -3742.379639 375.662018 
9318.698242 -3588.667236 359.551666 
9305.292969 -3503.582764 358.855408 
9439.505859 -3618.846924 340.307556 
9439.273438 -3518.850098 321.924896 
9437.446289 -3577.516357 330.142212 
9373.756836 -3623.247559 349.408875 
9393.294922 -3545.056885 335.778625 
9322.824219 -3778.689209 386.655151 
9166.157227 -3384.836914 402.640259 
9114.540039 -3325.435547 413.988983 
9267.777344 -3425.407959 376.407166 
9222.690430 -3361.600098 390.000000 
9276.785156 -3352.575195 372.000000 
9258.750000 -3289.399902 379.000000 
9182.446289 -3297.867188 399.602783 
9166.847656 -3213.794189 396.529022 
9186.620117 -3109.100098 374.000000 
9238.732422 -3194.565430 382.203766 
9333.437500 -3415.488037 354.010132 
9341.804688 -3364.198486 346.992645 
9330.879883 -3289.399902 352.000000 
9445.601563 -3458.280273 317.230164 
9422.053711 -3359.852539 321.927704 
9366.950195 -3433.699951 344.000000 
9293.641602 -3225.574219 369.809235 
9286.517578 -3164.955322 371.576172 
9429.644531 -3317.657715 318.764526 
9412.030273 -3226.324951 330.000000 
9349.751953 -3130.958008 354.882141 
9295.111328 -3101.648193 360.810730 
9542.362305 -3666.724854 367.574097 
9511.209961 -3794.399902 400.000000 
9469.382813 -3592.822998 332.886139 
9596.036133 -3707.891357 384.738922 
9476.511719 -3532.190186 319.386414 
9564.814453 -3605.108154 354.146362 
9622.637695 -3601.476074 360.098267 
9511.992188 -3556.028564 325.159882 
9614.090820 -3507.775635 333.106964 
9533.945313 -3426.127686 300.737396 
9553.702148 -3524.142334 322.578003 
9632.498047 -3704.043945 389.097473 
9667.902344 -3791.026367 411.481476 
9763.669922 -3758.300049 408.000000 
9751.102539 -3663.212891 392.233673 
9800.676758 -3622.051514 382.654388 
9691.540039 -3596.000000 368.500000 
9697.902344 -3648.645020 387.304993 
9723.504883 -3517.612305 343.180298 
9649.286133 -3479.066895 328.926270 
9535.622070 -3369.012207 292.461548 
9475.387695 -3442.594238 305.852936 
9473.621094 -3304.904541 304.885834 
9583.349609 -3361.601563 282.999359 
9580.225586 -3404.704346 295.097137 
9499.712891 -3259.722900 294.321930 
9548.012695 -3283.474365 278.915680 
9439.080078 -3163.199951 319.000000 
9588.528320 -3299.656006 274.847748 
9570.596680 -3211.309570 277.599457 
9671.118164 -3399.953369 292.213135 
9649.593750 -3367.538818 284.259308 
9655.437500 -3307.482422 277.002472 
9728.454102 -3371.750488 303.932892 
9766.019531 -3391.107178 316.460876 
9705.216797 -3322.039063 284.959320 
9734.660156 -3447.345947 326.198914 
9632.574219 -3228.390869 271.645752 
9697.550781 -3273.014893 273.699097 
9767.775391 -3288.933594 281.211731 
9727.587891 -3181.239746 254.006775 
9752.676758 -3187.079590 255.247253 
9691.540039 -3109.100098 251.000000 
9150.052734 -3067.345947 371.417603 
9173.970703 -3015.507324 355.162506 
9255.832031 -3099.916992 363.869873 
9250.392578 -2970.552002 326.866394 
9157.308594 -2931.053467 319.892639 
9258.750000 -2892.699951 307.000000 
9182.272461 -2860.840088 296.507202 
9236.502930 -2938.164063 316.402832 
9141.662109 -2884.455811 305.862091 
9339.635742 -3082.461426 353.879181 
9381.931641 -3039.952148 335.657593 
9484.157227 -3127.149902 306.250000 
9393.859375 -3080.558838 336.504089 
9384.123047 -2994.686523 324.810272 
9454.581055 -3000.110107 313.073669 
9440.462891 -3036.522217 319.888336 
9246.288086 -2841.805908 291.742065 
9321.843750 -2933.788574 317.444305 
9421.312500 -2918.938477 306.915527 
9438.392578 -2831.071533 283.173737 
9324.282227 -3003.381836 332.355560 
9150.549805 -2712.399902 268.000000 
9114.490234 -2730.449951 273.000000 
9177.736328 -2802.552246 283.498291 
9271.748047 -2723.170898 268.997986 
9224.428711 -2691.603027 264.370605 
9201.610352 -2606.689941 255.452408 
9276.819336 -2604.188965 252.996994 
9211.200195 -2464.809570 232.994598 
9132.835938 -2588.918945 252.395905 
9387.604492 -2668.715088 255.080475 
9294.928711 -2645.511963 260.471619 
9364.693359 -2739.933350 262.177826 
9461.552734 -2753.978760 266.929871 
9329.346680 -2810.810791 280.528961 
9320.677734 -2510.382813 234.547440 
9366.950195 -2604.199951 247.000000 
9366.950195 -2550.100098 239.500000 
9314.335938 -2441.988037 219.484283 
9494.254883 -2948.432861 289.960785 
9584.700195 -3079.054443 274.300598 
9583.297852 -3000.941650 264.017792 
9583.339844 -3163.199951 275.000000 
9564.566406 -2822.733643 269.344635 
9530.699219 -2783.052734 271.492493 
9482.304688 -2848.700928 282.516846 
9601.375000 -2892.699951 259.000000 
9502.719727 -2908.302002 283.987122 
9649.097656 -2989.853271 244.329010 
9802.581055 -3003.379395 221.764832 
9727.599609 -3000.899902 232.000000 
9640.684570 -2825.610107 250.819763 
9691.540039 -2838.649902 231.000000 
9846.255859 -2905.689697 213.180954 
9727.138672 -2932.342773 226.337219 
9721.693359 -2888.294189 221.026489 
9651.900391 -2893.533203 243.320313 
9639.661133 -3086.031006 259.309204 
9613.711914 -2781.036133 254.250351 
9547.269531 -2712.399902 252.000000 
9555.283203 -2622.210938 232.173172 
9493.115234 -2550.136230 230.507034 
9619.410156 -2586.149902 221.000000 
9572.487305 -2573.314941 222.816391 
9434.607422 -2601.284912 239.162537 
9660.660156 -2764.667725 243.674332 
9651.817383 -2716.259766 239.531357 
9727.597656 -2766.472168 220.500549 
9763.669922 -2820.600098 216.000000 
9706.862305 -2708.503906 225.030930 
9678.474609 -2600.833740 221.725204 
9689.081055 -2510.134521 215.845871 
9739.914063 -2518.741699 215.655960 
9773.462891 -2555.218506 216.417435 
9767.770508 -2604.795166 215.663193 
9656.962891 -2640.960693 224.218567 
9768.338867 -2673.753174 217.581970 
9517.165039 -3059.697510 298.043213 
9445.908203 -2487.405762 221.431427 
9898.912109 -5047.600098 558.250000 
9916.945313 -4939.475098 560.000000 
9962.023438 -4984.692383 555.999878 
9869.274414 -4838.119141 565.968872 
9834.219727 -4732.820801 558.765015 
9875.895508 -4736.836426 554.712952 
9980.985352 -4737.142090 547.493958 
9939.326172 -4793.396973 553.111267 
9943.877930 -4732.307617 549.017517 
10070.220703 -4894.349609 548.000000 
10196.450195 -5038.600098 543.000000 
10158.015625 -4937.096191 543.486084 
10047.445313 -4838.176270 544.753784 
10160.389648 -4804.200195 526.000000 
9962.025391 -4903.375000 553.250000 
9998.186523 -5029.615723 554.032166 
10057.416992 -4746.425781 538.049500 
9907.929688 -4696.000000 553.000000 
9907.929688 -4732.100098 552.000000 
9913.190430 -4606.789063 552.691223 
9976.851563 -4693.442871 543.340454 
9907.929688 -4659.899902 554.000000 
10016.120117 -4605.849609 525.000000 
9852.838867 -4370.519531 521.858398 
9891.375977 -4549.838867 541.297180 
9916.945313 -4434.500000 517.750000 
9980.059570 -4407.500000 502.000000 
10097.267578 -4714.049805 525.750000 
10052.190430 -4605.849609 519.000000 
9999.525391 -4557.336914 521.391968 
10118.490234 -4558.331543 504.026062 
10143.346680 -4647.974121 514.819519 
9963.375000 -4504.207520 517.289185 
10054.690430 -4418.695313 492.921082 
10134.614258 -4481.830078 480.301361 
10057.755859 -4533.333984 510.451782 
10034.155273 -4668.924805 529.750000 
9850.496094 -4663.767578 558.194214 
10196.452148 -4880.824707 530.750000 
10268.868164 -4981.292480 536.092407 
10348.128906 -4934.619141 522.293152 
10180.349609 -4716.088379 510.950165 
10214.484375 -4786.150391 515.500000 
10340.029297 -4830.397461 503.388092 
10286.615234 -4858.299805 516.000000 
10257.960938 -4727.869141 499.990601 
10194.018555 -4963.204102 541.352539 
10383.329102 -4900.142090 514.532288 
10448.910156 -5002.549805 525.000000 
10467.080078 -4902.562012 515.059692 
10384.101563 -4813.680176 497.506897 
10533.678711 -4780.397461 478.788422 
10448.910156 -4768.100098 487.000000 
10290.837891 -4658.437012 491.599823 
10239.628906 -4615.440918 494.037994 
10240.364258 -4555.307129 480.899841 
10358.423828 -4656.845215 483.457977 
10315.208008 -4515.946289 463.484467 
10222.685547 -4520.297852 474.934479 
10340.709961 -4443.500000 448.000000 
10254.870117 -4434.774414 460.497711 
10437.879883 -4663.032715 471.161865 
10484.969727 -4659.899902 463.000000 
10412.839844 -4515.700195 444.000000 
10457.924805 -4497.650391 435.250000 
10376.780273 -4714.049805 487.000000 
9920.892578 -4331.633789 506.663208 
9908.642578 -4225.481445 477.119446 
9925.154297 -4294.172363 496.539978 
9844.812500 -4141.462891 472.500000 
10025.945313 -4144.470215 438.238007 
9920.655273 -4120.022461 459.147858 
9980.059570 -4136.950195 447.000000 
9924.804688 -4197.005371 467.086273 
9921.750000 -4071.586914 450.751221 
9989.353516 -4274.087891 467.531006 
10102.376953 -4347.135742 464.258240 
10046.859375 -4283.423828 457.268219 
10113.718750 -4270.289063 444.544800 
10035.407227 -4372.691406 487.211273 
10052.190430 -4227.100098 450.000000 
10124.320313 -4100.899902 425.500000 
10195.895508 -4133.206055 416.417480 
10094.008789 -4185.839355 436.323212 
9992.128906 -4216.489258 455.071533 
9773.178711 -3993.745850 454.594055 
9871.885742 -3938.565918 439.995087 
9889.894531 -3983.699951 445.750000 
9907.929688 -3938.600098 440.000000 
9943.990234 -3992.699951 440.500000 
9809.205078 -3841.379150 429.683502 
9885.458008 -3849.762451 429.700500 
9956.185547 -3841.614258 419.000580 
10051.086914 -4017.662354 425.858673 
9998.089844 -3947.625000 426.500000 
10157.002930 -3957.927246 396.085114 
10106.287109 -3983.747070 412.508911 
10156.987305 -4054.889160 415.261688 
10073.864258 -3928.937012 408.010315 
10052.190430 -3866.500000 405.000000 
10052.190430 -3812.399902 398.500000 
10136.287109 -3836.101807 377.380035 
10142.355469 -3884.550049 386.000000 
10205.466797 -4353.349609 449.250000 
10174.470703 -4247.194336 429.256897 
10286.615234 -4371.399902 441.500000 
10251.977539 -4273.347168 426.251831 
10304.367188 -4266.192383 420.455750 
10352.179688 -4285.339844 414.924255 
10350.750000 -4221.724609 410.206146 
10271.163086 -4186.333984 413.298859 
10354.238281 -4384.937500 434.375000 
10448.910156 -4299.299805 406.000000 
10466.939453 -4398.450195 415.500000 
10412.839844 -4209.100098 396.500000 
10521.040039 -4227.100098 384.000000 
10449.188477 -4194.112793 388.496094 
10473.915039 -4127.102539 379.301147 
10427.122070 -4325.403809 412.061615 
10216.767578 -4033.980469 395.138641 
10295.632813 -4087.387451 389.125000 
10304.650391 -4010.699951 366.000000 
10237.705078 -3949.560303 367.368317 
10383.864258 -3955.398926 338.227966 
10250.549805 -3875.524902 354.750000 
10208.686523 -3806.358154 354.190704 
10268.580078 -3794.399902 343.000000 
10316.992188 -3909.986816 339.892395 
10315.309570 -3771.859131 331.381592 
10196.450195 -3920.600098 377.000000 
10381.159180 -4038.513428 365.357819 
10510.708984 -3975.815430 345.396118 
10484.526367 -4039.604004 363.071777 
10416.105469 -4073.533447 372.623993 
10319.093750 -3846.504639 332.063446 
10377.793945 -3821.097168 316.734863 
10484.969727 -3902.600098 331.000000 
10451.840820 -3788.981689 309.921265 
10421.708984 -3828.767090 315.549622 
10343.525391 -4081.201904 379.260956 
10147.382813 -4405.945313 467.278137 
9871.860352 -4966.500000 563.500000 
10539.470703 -4951.959961 513.329285 
10637.885742 -4981.907715 509.419037 
10592.999023 -4889.188965 490.355255 
10557.300781 -4713.871094 461.533813 
10647.269531 -4876.299805 486.500000 
10634.996094 -4785.754883 475.109558 
10456.883789 -4815.793457 493.706451 
10719.400391 -4876.299805 485.000000 
10706.516602 -4922.810059 489.207275 
10789.568359 -4996.750488 504.230560 
10827.594727 -5056.600098 510.000000 
10884.386719 -4966.527344 503.740356 
10755.464844 -4804.200195 474.500000 
10748.702148 -4733.466797 459.788635 
10853.872070 -4874.220703 481.975861 
10827.594727 -4777.125000 468.000000 
10804.118164 -4913.878418 491.759430 
10723.037109 -4983.604004 503.716675 
10581.681641 -4552.753418 433.677582 
10521.040039 -4578.774902 444.750000 
10665.299805 -4732.100098 463.000000 
10634.925781 -4665.477539 454.033112 
10691.018555 -4554.946289 431.590210 
10542.710938 -4395.525879 404.992889 
10611.205078 -4479.600098 417.500000 
10641.666016 -4416.633301 401.770264 
10539.075195 -4488.625000 423.250000 
10734.243164 -4644.325195 449.877625 
10751.326172 -4608.429688 445.147217 
10833.352539 -4647.485840 446.769562 
10852.843750 -4611.334961 437.526794 
10808.112305 -4712.292969 457.769592 
10716.315430 -4457.185547 407.998383 
10842.500977 -4529.568848 423.580566 
10805.597656 -4418.843750 399.714569 
10775.432617 -4523.729492 418.493347 
10752.725586 -4431.540527 403.412231 
10575.140625 -4641.899902 451.000000 
11025.959961 -4948.450195 487.000000 
10928.992188 -4907.602051 490.469421 
10953.830078 -5020.600098 502.000000 
10976.208008 -4856.325195 480.509583 
10908.742188 -4754.612305 469.000000 
11025.959961 -4804.200195 476.000000 
10963.132813 -4807.099609 477.442474 
10905.494141 -4837.135254 477.188171 
11100.802734 -5063.607422 493.753937 
11089.069336 -4939.456055 486.500519 
11116.664063 -5016.646484 494.482391 
11134.150391 -4966.500000 488.000000 
11206.296875 -5056.345703 485.984497 
11093.812500 -4840.408691 473.198395 
11098.089844 -4768.100098 469.000000 
11163.132813 -4852.355469 473.962677 
11049.517578 -5022.004883 495.916412 
11007.815430 -4752.484863 470.958618 
10863.309570 -4698.582031 462.505981 
10877.486328 -4500.331055 420.048615 
10976.383789 -4646.133301 451.526611 
10886.500977 -4586.527832 431.926178 
10941.986328 -4397.484375 404.915131 
10979.977539 -4558.370605 433.130890 
10989.889648 -4515.700195 428.000000 
11042.472656 -4587.088867 446.180450 
11170.219727 -4641.899902 457.500000 
11170.219727 -4714.049805 464.000000 
11098.089844 -4587.799805 451.000000 
11062.019531 -4515.700195 439.000000 
11134.150391 -4461.549805 435.000000 
11059.362305 -4688.406738 458.342194 
10542.391602 -5019.913574 523.496277 
10852.197266 -4412.356445 398.758728 
10539.075195 -4299.250000 390.000000 
10663.744141 -4367.385742 380.674072 
10630.228516 -4246.535645 360.516174 
10602.018555 -4369.082031 390.149872 
10539.015625 -4046.813965 357.509399 
10593.169922 -4082.899902 355.000000 
10665.299805 -4173.049805 347.000000 
10548.311523 -4168.812988 374.854034 
10677.269531 -4265.151367 353.639343 
10755.464844 -4272.225098 357.875000 
10809.559570 -4353.349609 382.000000 
10732.545898 -4106.908203 327.726257 
10683.334961 -4100.899902 336.250000 
10701.370117 -4173.049805 340.500000 
10878.761719 -4282.398438 373.091553 
10775.707031 -4136.582520 329.434601 
10800.590820 -4101.311523 319.673065 
10854.644531 -4182.075195 344.250000 
10699.895508 -4372.506836 382.555511 
10665.299805 -3974.699951 328.000000 
10611.205078 -4019.725098 341.750000 
10651.754883 -3899.909180 319.967834 
10494.212891 -3830.872803 314.172699 
10539.075195 -3884.550049 326.500000 
10598.669922 -3844.533936 315.704926 
10607.973633 -3799.750977 297.570801 
10575.613281 -3803.616211 308.250854 
10725.867188 -3980.329102 316.583740 
10795.588867 -4042.244629 305.440765 
10843.853516 -4048.869629 300.203888 
10808.451172 -3962.282959 288.653442 
10737.480469 -3866.503174 281.981873 
10696.457031 -3889.425781 307.274811 
10665.016602 -3796.957520 275.860077 
10766.619141 -3816.519287 255.906067 
10809.559570 -3794.399902 244.000000 
10846.626953 -3887.071777 263.142639 
10810.082031 -3881.312500 263.434540 
10768.594727 -3945.870361 294.971161 
10762.042969 -3739.166504 239.213165 
10621.404297 -4316.579102 372.792328 
10933.021484 -4259.724121 370.567688 
10992.758789 -4307.729492 384.160980 
10879.214844 -4368.041504 393.804077 
10865.937500 -4120.985352 330.113007 
10919.743164 -4183.966797 347.261292 
10920.912109 -4081.949951 323.737488 
10971.859375 -4127.924805 342.000000 
11062.019531 -4191.100098 371.000000 
10989.889648 -4227.100098 369.000000 
11167.490234 -4294.599609 407.417328 
11069.452148 -4289.675293 391.640320 
11170.219727 -4371.399902 422.000000 
11171.317383 -4209.688477 399.625275 
11150.054688 -4158.061035 386.817200 
11049.875000 -4371.454590 409.125854 
10881.841797 -4021.349365 295.029266 
10926.701172 -3966.816895 293.906891 
10993.686523 -4034.118408 328.344635 
10881.690430 -3929.625000 273.500000 
10924.796875 -3860.916260 272.065491 
10971.007813 -3828.128906 275.760345 
11027.820313 -3881.595703 308.256439 
10964.264648 -3922.064941 301.550934 
10912.858398 -3771.075195 253.625839 
11098.089844 -4109.924805 363.250000 
11043.990234 -4019.725098 338.000000 
11133.302734 -4018.074951 352.279846 
11206.397461 -3968.264160 363.173218 
11135.050781 -3974.331543 346.281006 
11152.185547 -4082.875000 372.750000 
11075.175781 -3891.940430 321.377045 
11100.049805 -3789.309814 314.024384 
11138.108398 -3845.274170 328.683777 
11168.607422 -3925.031982 350.804718 
11025.959961 -4082.899902 344.000000 
11025.959961 -3830.399902 296.000000 
10520.287109 -3783.414063 306.675751 
9847.611328 -3755.343018 404.968872 
9871.860352 -3650.100098 388.000000 
9998.089844 -3785.375000 401.000000 
9889.894531 -3695.199951 394.750000 
9936.208008 -3486.947754 340.874817 
9887.207031 -3577.201172 368.942383 
9904.095703 -3447.311279 333.755310 
9871.860352 -3487.800049 344.500000 
9960.128906 -3631.236816 378.898163 
10034.155273 -3586.975098 351.000000 
10109.785156 -3646.698486 356.644257 
10102.414063 -3753.215332 377.983917 
10071.519531 -3465.103760 317.158813 
10128.131836 -3531.771240 330.609924 
10043.172852 -3532.875000 335.500000 
10050.665039 -3707.376709 382.752014 
9819.726563 -3358.031006 300.728516 
9801.833008 -3403.084473 320.982239 
9867.837891 -3304.989990 283.678986 
9952.427734 -3299.197021 289.903442 
9891.406250 -3370.354492 307.505310 
9871.390625 -3145.175781 255.958847 
9946.027344 -3250.808594 278.023560 
9942.922852 -3213.186035 274.463501 
9952.470703 -3142.271973 259.456970 
9904.468750 -3107.493896 247.519821 
9853.781250 -3253.345703 273.488770 
10036.111328 -3382.279785 304.303009 
9963.126953 -3370.422363 310.778748 
10052.828125 -3327.817383 287.418732 
10081.352539 -3373.586914 296.924133 
9990.700195 -3182.019043 265.901245 
10022.983398 -3263.160400 275.999329 
10087.664063 -3197.202393 255.568741 
10164.352539 -3606.614258 344.562164 
10175.596680 -3515.440186 322.020172 
10250.549805 -3578.000000 323.000000 
10193.294922 -3470.776855 301.796021 
10237.405273 -3505.918213 307.239166 
10309.270508 -3491.934326 284.722290 
10420.454102 -3735.525879 307.598450 
10412.839844 -3632.050049 292.000000 
10314.414063 -3616.356201 319.820313 
10513.200195 -3716.974365 288.938934 
10489.158203 -3636.078613 271.036224 
10448.168945 -3707.782715 296.812378 
10557.828125 -3628.659912 257.142853 
10384.287109 -3562.301270 286.624908 
10380.439453 -3501.043701 269.580994 
10453.157227 -3549.771484 266.165527 
10446.118164 -3496.117676 255.762177 
10300.138672 -3713.199951 331.750000 
10176.894531 -3416.613281 288.920959 
10226.574219 -3330.442627 263.202850 
10305.522461 -3429.455811 269.937592 
10232.123047 -3423.108154 280.430481 
10165.783203 -3219.338623 254.012100 
10160.398438 -3181.205566 248.000229 
10234.934570 -3200.765869 244.225662 
10264.076172 -3271.399902 251.625000 
10268.580078 -3145.199951 230.000000 
10413.853516 -3300.897949 242.257874 
10322.679688 -3325.500000 252.250000 
10511.050781 -3435.452393 235.276901 
10456.941406 -3369.634277 241.036301 
10417.488281 -3418.238770 251.049255 
10360.408203 -3277.454590 243.895096 
10361.549805 -3192.383789 226.672684 
10412.839844 -3145.199951 220.000000 
10465.401367 -3222.804199 225.506058 
10205.635742 -3665.545410 347.090576 
10158.300781 -3738.091797 362.431030 
9895.948242 -3031.615723 223.200241 
9820.303711 -3118.537109 245.249756 
9779.985352 -3093.529785 239.281326 
9992.889648 -3070.510742 228.892838 
9890.500000 -2803.246826 209.678879 
9926.750977 -2865.991211 209.662140 
9980.582031 -2928.915283 215.919662 
10027.939453 -3106.420898 236.713272 
10049.562500 -2899.997314 210.146851 
9980.059570 -2982.899902 220.500000 
10088.250000 -3000.899902 216.000000 
10100.321289 -3107.097900 227.206055 
10124.320313 -2964.899902 208.000000 
10076.784180 -2828.154053 192.752350 
9819.320313 -2761.413574 215.199341 
9871.860352 -2712.399902 203.000000 
9980.059570 -2820.600098 198.000000 
9943.935547 -2748.469727 192.004440 
9943.990234 -2640.300049 183.000000 
9905.052734 -2643.379395 188.413269 
9861.757813 -2512.497314 195.697083 
9815.443359 -2619.743164 207.124771 
9991.703125 -2755.751465 187.716431 
10087.864258 -2751.006348 183.184769 
10088.572266 -2699.187500 180.039536 
10149.053711 -2741.381592 183.633484 
9934.974609 -2541.075195 182.250000 
10017.659180 -2602.729736 175.381241 
10016.120117 -2514.050049 175.500000 
10088.250000 -2640.300049 172.000000 
10083.421875 -2511.996094 165.976654 
10179.747070 -3134.138184 231.915726 
10155.738281 -3070.804688 220.090683 
10207.274414 -3030.441406 210.529373 
10283.633789 -3078.269287 216.480576 
10335.349609 -3114.442871 220.046875 
10234.255859 -2955.632324 201.362793 
10168.082031 -2824.424316 187.882858 
10279.753906 -2921.521973 195.321381 
10241.532227 -2856.699951 188.000000 
10130.307617 -2896.373291 201.171768 
10376.808594 -3018.961426 201.499542 
10484.969727 -3073.000000 203.000000 
10484.969727 -3018.949951 197.000000 
10430.875000 -3027.949951 200.250000 
10387.692383 -2929.060303 186.200760 
10475.955078 -2924.287598 187.000000 
10367.759766 -3064.024902 211.250000 
10198.707031 -2703.375000 175.562500 
10250.549805 -2667.300049 170.750000 
10255.085938 -2780.011230 179.373260 
10150.066406 -2554.204590 160.482071 
10304.650391 -2640.300049 164.000000 
10232.519531 -2577.149902 161.000000 
10279.022461 -2511.678955 147.041824 
10350.375000 -2720.303955 172.626389 
10376.780273 -2640.300049 159.000000 
10430.875000 -2676.300049 165.500000 
10330.029297 -2775.717529 174.562088 
10322.679688 -2586.149902 153.500000 
10396.424805 -2543.571289 146.535507 
10464.079102 -2605.091309 157.183853 
10461.364258 -2758.220459 173.047440 
10629.525391 -3699.500244 259.669067 
10679.122070 -3646.024414 238.081635 
10631.452148 -3637.916016 244.207840 
10587.703125 -3539.332031 233.542542 
10539.075195 -3397.600098 232.500000 
10549.182617 -3497.935303 231.690521 
10606.430664 -3512.959961 226.636154 
10685.323242 -3469.125000 215.930573 
10629.240234 -3559.949951 232.000000 
10723.238281 -3568.618896 227.918823 
10738.755859 -3694.721436 232.505722 
10844.747070 -3775.294434 241.626862 
10670.015625 -3701.717041 248.775375 
10782.707031 -3559.854980 222.160080 
10773.500000 -3505.800049 214.000000 
10905.484375 -3600.268066 235.003311 
10837.285156 -3503.463379 220.821533 
10845.760742 -3614.930420 229.120560 
10734.061523 -3502.072998 214.895554 
10895.041992 -3653.551514 240.911850 
10557.110352 -3289.399902 220.000000 
10619.142578 -3395.177002 226.283661 
10629.240234 -3289.399902 213.000000 
10573.624023 -3087.553711 193.227280 
10683.334961 -3361.600098 208.500000 
10620.093750 -3198.672363 206.942627 
10691.862305 -3183.885986 192.150574 
10629.288086 -3133.310547 198.454269 
10529.919922 -3186.391113 215.736755 
10737.429688 -3406.649902 203.750000 
10782.514648 -3298.449951 192.250000 
10863.660156 -3433.699951 215.000000 
10809.559570 -3397.600098 202.000000 
10773.500000 -3406.649902 201.750000 
10763.597656 -3222.429443 188.126389 
10719.400391 -3271.399902 197.000000 
10813.106445 -3218.637695 187.179382 
10849.125000 -3227.459961 192.720749 
10809.853516 -3300.771973 193.108139 
10768.125977 -3139.761963 173.737717 
10843.642578 -3112.687256 166.099548 
10654.273438 -3424.002197 219.665619 
10503.004883 -3325.500000 232.000000 
11042.098633 -3631.785889 276.368225 
10976.367188 -3717.712402 266.750000 
10996.430664 -3391.336426 229.469696 
10935.145508 -3492.535889 236.236481 
10976.484375 -3541.251465 247.166718 
10975.906250 -3595.387695 250.771851 
11007.811523 -3479.634033 251.698471 
11043.990234 -3740.250000 287.000000 
11079.351563 -3655.635742 286.041473 
11098.031250 -3614.076416 287.993805 
11170.219727 -3794.399902 333.000000 
11170.219727 -3650.100098 313.000000 
11137.870117 -3695.843018 308.777924 
11061.986328 -3541.934082 269.996490 
11134.150391 -3559.949951 289.000000 
11152.287109 -3515.581787 284.235443 
11206.348633 -3638.968994 318.312286 
10891.967773 -3387.384033 212.464828 
10899.724609 -3280.424805 206.750000 
10994.400391 -3307.449951 220.750000 
10908.742188 -3158.699951 189.500000 
10974.160156 -3220.955322 211.499832 
11102.780273 -3291.622803 234.147156 
11170.219727 -3433.699951 276.000000 
11206.280273 -3388.625000 274.500000 
11098.089844 -3433.699951 261.000000 
11079.394531 -3199.280273 221.422546 
11158.910156 -3245.486328 240.535095 
11152.522461 -3181.158691 232.050232 
10873.440430 -3777.718750 246.402191 
10593.169922 -2982.899902 187.000000 
10629.240234 -3055.000000 190.500000 
10533.845703 -2959.473877 188.776260 
10521.040039 -2874.699951 180.500000 
10593.169922 -2856.699951 180.000000 
10601.601563 -2737.777588 171.827515 
10656.285156 -2897.250000 177.000000 
10665.299805 -3000.899902 182.000000 
10737.429688 -3055.000000 175.500000 
10808.741211 -3122.661621 166.386230 
10845.629883 -3000.899902 157.000000 
10773.500000 -2982.899902 163.500000 
10746.447266 -2955.850098 169.000000 
10755.464844 -2820.600098 163.500000 
10800.544922 -2924.274902 158.125000 
10861.191406 -2902.266846 153.221954 
10884.709961 -2833.343506 144.534653 
10701.370117 -2910.750000 175.000000 
10674.317383 -3113.612305 191.500000 
10534.740234 -2739.740234 171.787872 
10630.412109 -2686.028076 162.642700 
10534.796875 -2623.983398 155.853378 
10611.205078 -2613.225098 149.500000 
10566.123047 -2518.537598 133.125000 
10665.299805 -2568.100098 142.000000 
10757.657227 -2681.794434 155.252182 
10746.434570 -2628.961426 149.921646 
10804.191406 -2629.729736 142.954666 
10708.250000 -2513.615723 123.865204 
10710.384766 -2780.037598 166.500000 
10635.730469 -2492.430420 125.968750 
10905.609375 -3061.488281 170.860062 
11034.974609 -3163.199951 209.250000 
10926.787109 -2964.834961 164.749252 
11058.524414 -3030.322998 186.686111 
10949.320313 -3068.537598 180.375000 
10917.735352 -2856.797363 147.014893 
11025.959961 -2856.699951 160.000000 
11007.924805 -2937.825195 168.000000 
11134.150391 -2964.899902 197.000000 
11170.219727 -3082.050049 220.250000 
11062.019531 -2937.824951 175.500000 
11080.054688 -2838.649902 169.000000 
11134.150391 -2892.699951 187.000000 
11206.280273 -2946.850098 200.000000 
11134.150391 -3073.000000 211.000000 
10809.601563 -2753.581543 153.928513 
10917.759766 -2676.300049 139.000000 
11025.959961 -2784.500000 149.000000 
10928.150391 -2748.784668 141.287170 
10989.889648 -2730.449951 139.500000 
10881.690430 -2622.250000 136.000000 
10953.830078 -2604.200195 128.000000 
10915.103516 -2524.364258 122.013634 
10988.443359 -2658.372314 133.907166 
10989.889648 -2559.125000 122.500000 
11098.089844 -2775.524902 163.250000 
11035.829102 -2719.411865 144.005234 
11043.990234 -2622.250000 133.500000 
11176.336914 -2823.395508 174.149033 
11127.478516 -2718.697021 156.006424 
11134.150391 -2838.649902 176.500000 
11150.901367 -2637.114258 144.331284 
11098.159180 -2603.753418 137.944122 
11170.260742 -2604.205322 138.001648 
11035.283203 -2505.906006 119.551735 
10557.401367 -3709.243408 277.670532 
10781.833008 -3713.707520 232.875687 
8381.378906 -4989.296875 529.593628 
8431.151367 -2347.697998 171.604233 
8505.839844 -2321.567871 169.783905 
8473.702148 -2407.846680 197.204361 
8441.408203 -2281.164551 142.193985 
8553.834961 -2380.637695 203.404739 
8434.967773 -2179.738770 117.090790 
8500.880859 -2231.446289 133.212524 
8537.446289 -2230.527344 139.173157 
8501.373047 -2279.588867 146.994781 
8408.916016 -2234.148682 124.270508 
8619.759766 -2426.999512 217.838547 
8612.875977 -2371.525391 207.555984 
8654.527344 -2348.806396 200.077576 
8685.885742 -2418.595215 214.807098 
8585.422852 -2276.851074 171.608948 
8645.639648 -2297.649902 184.000000 
8645.730469 -2207.497070 152.010895 
8757.382813 -2263.963867 176.394363 
8710.500000 -2262.385010 175.070862 
8685.161133 -2171.994141 147.413986 
8753.872070 -2207.452881 162.994614 
8630.285156 -2171.984131 141.623825 
8576.615234 -2209.292969 142.701752 
8532.822266 -2426.150146 214.552765 
8431.962891 -2082.429443 112.121902 
8470.491211 -2022.193726 111.267418 
8416.038086 -1986.062012 119.182388 
8501.388672 -1991.279907 108.003922 
8501.379883 -2063.199951 112.000000 
8524.986328 -2170.754395 122.027588 
8414.261719 -1840.007202 112.642250 
8429.231445 -1810.826294 115.998558 
8478.086914 -1881.362793 117.120499 
8407.263672 -1883.114624 114.186752 
8554.846680 -1993.332397 109.238129 
8496.375977 -1857.728271 114.130768 
8524.195313 -1792.915039 114.316307 
8454.267578 -1937.197144 109.112396 
8648.654297 -2088.134766 132.098099 
8643.145508 -2029.368774 117.392273 
8649.435547 -1992.722046 113.545280 
8551.635742 -1875.462158 120.253906 
8641.004883 -1841.097656 102.041275 
8612.079102 -1888.956543 113.121796 
8655.753906 -1901.551636 112.414772 
8717.593750 -1992.694824 115.380714 
8717.769531 -2063.199951 132.000000 
8564.659180 -2110.398926 122.530411 
8582.524414 -1812.911377 110.159721 
8783.238281 -2415.285889 216.415771 
8842.619141 -2313.581787 200.722824 
8732.954102 -2315.148438 192.535553 
8871.514648 -2399.879639 215.849380 
8956.628906 -2315.231934 210.720245 
8934.160156 -2279.600098 199.000000 
8825.969727 -2261.550049 185.500000 
8880.064453 -2207.475098 178.500000 
9043.784180 -2409.429443 212.032196 
9041.702148 -2315.604248 203.614044 
8949.747070 -2241.727539 187.471512 
8923.878906 -2141.801025 168.530365 
9099.242188 -2272.521973 194.119385 
9044.679688 -2140.358154 170.745422 
9055.009766 -2236.904541 182.211212 
8972.207031 -2424.277100 219.225189 
8919.862305 -2423.970703 218.915268 
8775.433594 -2135.030762 152.038300 
8803.791016 -2024.198608 133.501968 
8867.463867 -2062.672363 143.206635 
8726.245117 -1903.409302 112.326645 
8790.214844 -1971.952515 119.763664 
8804.543945 -1845.792236 109.279488 
8835.361328 -1920.596802 114.271561 
8934.940430 -1881.534912 110.030350 
8909.625977 -1963.608154 122.655884 
8983.344727 -2147.861084 169.124634 
8976.636719 -1972.600830 122.461540 
8952.195313 -2027.199951 137.000000 
9052.742188 -2034.118164 148.773224 
9149.914063 -2037.469238 167.332977 
8970.178711 -1919.048706 113.005150 
9028.288086 -1928.576172 119.502136 
9047.870117 -1878.656982 111.621208 
9115.269531 -1882.793701 111.981621 
8767.357422 -2374.262695 207.375000 
8408.052734 -1765.220703 129.443710 
8402.745117 -1702.306885 149.479187 
8429.187500 -1645.424316 164.135147 
8550.130859 -1771.852173 112.146072 
8502.192383 -1736.584839 120.204674 
8534.204102 -1722.897095 118.417702 
8519.410156 -1666.500000 136.500000 
8501.379883 -1612.400024 152.500000 
8632.374023 -1676.208862 115.011940 
8591.952148 -1718.694092 111.350616 
8679.361328 -1836.916626 100.402733 
8670.618164 -1748.371582 107.500572 
8671.208008 -1697.012573 108.345238 
8681.937500 -1594.093506 123.036835 
8681.700195 -1468.149902 154.500000 
8786.317383 -1564.351318 115.211143 
8760.369141 -1603.678223 112.933540 
8714.627930 -1529.528564 135.310745 
8701.328125 -1637.073975 114.027161 
8609.570313 -1522.199951 151.000000 
8403.278320 -1363.742310 235.118271 
8460.493164 -1302.073120 231.928650 
8493.780273 -1466.511108 194.141190 
8485.825195 -1372.583496 216.534439 
8403.378906 -1310.520020 245.069489 
8381.250977 -1252.276489 264.632904 
8474.114258 -1246.125732 238.027802 
8575.968750 -1251.534790 213.509109 
8555.474609 -1341.900024 199.500000 
8588.814453 -1466.967041 168.029709 
8608.778320 -1396.001221 176.161819 
8705.977539 -1395.375732 171.620544 
8681.669922 -1323.877563 195.488617 
8652.324219 -1387.924683 174.263901 
8622.072266 -1234.508667 214.938599 
8716.782227 -1210.261841 235.421982 
8711.380859 -1271.010498 217.558563 
8608.335938 -1309.523804 197.194626 
8733.980469 -1844.406372 107.417015 
8820.650391 -1750.972778 118.614937 
8894.669922 -1844.272339 108.902481 
8756.901367 -1703.938599 112.042007 
8837.837891 -1599.204346 112.030754 
8893.043945 -1712.302490 114.988838 
8825.969727 -1666.500000 115.000000 
8806.046875 -1528.261475 126.434608 
8972.947266 -1768.537476 114.613136 
9038.292969 -1840.059692 112.120537 
9036.484375 -1672.074585 108.273727 
8948.326172 -1697.465820 110.025795 
9125.721680 -1844.523315 108.675224 
9070.599609 -1754.907715 115.931755 
8893.383789 -1539.782104 118.978767 
9043.138672 -1626.569336 109.147598 
8908.918945 -1618.339722 113.112160 
9128.389648 -1651.640503 109.981682 
9082.808594 -1588.984741 112.793732 
8789.879883 -1395.990356 173.503647 
8880.174805 -1468.948120 139.600616 
8828.613281 -1455.437134 152.501358 
8729.958008 -1305.643311 203.228851 
8767.394531 -1342.029785 187.816147 
8761.333008 -1242.870483 225.768173 
8923.805664 -1370.165771 165.837936 
8839.120117 -1304.778687 190.280533 
8850.650391 -1168.982788 217.132919 
8828.661133 -1235.854736 212.149399 
8840.575195 -1379.554810 174.294617 
8764.290039 -1460.317139 155.717102 
8970.230469 -1359.949951 170.000000 
8925.144531 -1314.850098 181.750000 
9027.617188 -1532.216919 121.311371 
9046.669922 -1472.619629 135.844376 
8964.092773 -1519.018311 121.127472 
8932.399414 -1254.020142 200.006012 
8978.432617 -1226.840820 212.307037 
8882.427734 -1246.843018 201.356781 
9042.360352 -1287.800049 201.000000 
9033.342773 -1386.974976 165.500000 
8949.132813 -1476.904053 130.575317 
9132.519531 -2486.975098 235.000000 
9186.620117 -2423.899902 226.000000 
9122.461914 -2319.431396 200.732407 
9330.879883 -2387.800049 216.000000 
9194.647461 -2333.920654 212.433670 
9150.549805 -2216.475098 195.750000 
9150.549805 -2135.300049 184.000000 
9235.055664 -2243.340820 206.588013 
9258.750000 -2351.699951 217.000000 
9358.877930 -2347.761963 214.172806 
9284.152344 -2215.423828 201.483246 
9396.602539 -2423.264404 217.096527 
9403.009766 -2315.699951 208.000000 
9473.400391 -2339.262939 201.864105 
9475.139648 -2261.550049 200.500000 
9422.568359 -2190.487305 198.165253 
9393.995117 -2261.550049 205.250000 
9227.460938 -2406.565674 223.512131 
9136.606445 -1976.314453 143.441742 
9222.690430 -2099.300049 178.000000 
9259.355469 -2037.213257 169.348053 
9129.028320 -1919.951294 123.852272 
9276.639648 -1987.821411 150.325989 
9214.375977 -1885.379272 112.514008 
9236.375977 -1913.755737 117.050972 
9284.753906 -1859.171143 107.572357 
9191.630859 -1962.297485 141.259613 
9321.867188 -2130.825195 186.500000 
9358.598633 -2034.202515 169.158356 
9296.032227 -2034.382446 171.091949 
9471.899414 -2121.734619 185.787781 
9421.044922 -2117.300049 186.500000 
9427.239258 -2029.045898 154.609589 
9361.064453 -1917.937988 111.954491 
9393.419922 -1854.527344 111.627960 
9472.066406 -1992.811523 121.170593 
9457.116211 -1891.921631 115.000000 
9486.362305 -1955.708618 114.255920 
9425.714844 -1956.399292 117.511841 
9342.680664 -1992.931763 149.689651 
9505.731445 -2025.522461 127.483994 
9355.820313 -1952.346802 123.414848 
9585.579102 -2484.384521 213.731750 
9524.846680 -2491.685059 219.986694 
9493.174805 -2396.825195 207.000000 
9654.553711 -2499.693604 212.817612 
9691.731445 -2458.017578 202.717148 
9553.044922 -2368.448975 198.110428 
9637.439453 -2405.850098 200.500000 
9583.222656 -2220.284668 191.593384 
9514.256836 -2186.359131 196.823288 
9615.072266 -2332.988037 190.770874 
9654.878906 -2172.140137 162.709198 
9654.160156 -2310.598633 184.321014 
9574.659180 -2173.304199 186.080002 
9711.167969 -2359.081787 190.397675 
9838.105469 -2470.073730 195.289536 
9755.345703 -2358.745361 189.174545 
9788.632813 -2318.083984 187.672592 
9751.237305 -2455.286377 194.579941 
9677.331055 -2216.080322 168.032974 
9748.935547 -2239.894775 167.837936 
9802.973633 -2275.589600 179.964081 
9697.463867 -2285.684570 177.515305 
9719.388672 -2182.983643 149.733597 
9484.965820 -2073.340332 164.419159 
9559.250977 -2089.909180 148.275452 
9624.693359 -2062.714111 116.561043 
9617.832031 -2033.379883 111.477394 
9564.303711 -2042.264771 120.327599 
9570.680664 -2142.088135 175.129333 
9511.209961 -1846.800049 114.000000 
9560.950195 -1894.913452 109.487534 
9624.416016 -1904.382202 107.642242 
9541.891602 -2003.749146 115.289474 
9748.385742 -2101.133545 116.162987 
9689.354492 -2061.542480 110.025597 
9763.712891 -2135.312988 119.997368 
9810.206055 -2137.461182 115.681122 
9637.763672 -2110.449463 133.030899 
9650.964844 -1973.050049 108.375000 
9745.607422 -1937.006958 112.998917 
9745.291016 -2059.656982 114.330009 
9848.644531 -1901.863037 112.463837 
9815.922852 -1987.416016 114.443558 
9747.405273 -1993.626465 108.652702 
9708.545898 -2123.015625 123.390625 
9818.192383 -2170.083496 121.414955 
9089.850586 -2440.816406 221.163345 
9209.185547 -1831.608887 110.831009 
9259.233398 -1733.054077 114.167465 
9107.185547 -1521.414063 126.587059 
9157.225586 -1598.042969 115.671120 
9130.437500 -1735.609497 113.932076 
9295.276367 -1807.174194 105.935562 
9322.290039 -1693.890259 111.989952 
9451.535156 -1722.260864 116.474297 
9397.565430 -1755.727539 118.626564 
9348.915039 -1594.400024 122.500000 
9370.137695 -1663.105469 114.213509 
9439.069336 -1653.748901 118.976219 
9254.575195 -1654.381470 113.154961 
9096.455078 -1423.025024 154.250000 
9146.274414 -1486.071533 137.760101 
9132.519531 -1359.949951 176.000000 
9247.185547 -1562.964600 123.178085 
9204.655273 -1396.000000 164.500000 
9186.620117 -1305.800049 190.000000 
9161.050781 -1268.741821 204.660446 
9097.040039 -1268.303101 206.836121 
9258.750000 -1233.699951 199.000000 
9258.750000 -1314.850098 181.000000 
9222.690430 -1450.099976 149.000000 
9366.947266 -1468.149902 145.250000 
9299.325195 -1396.000000 162.375000 
9403.009766 -1486.199951 142.000000 
9330.879883 -1305.800049 183.000000 
9443.246094 -1313.594849 197.412018 
9401.627930 -1363.244751 174.578033 
9366.950195 -1251.750000 200.500000 
9327.704102 -1538.541870 127.096954 
9321.843750 -1269.297852 192.617538 
9475.313477 -1810.559570 114.921371 
9538.254883 -1792.750000 114.500000 
9687.847656 -1730.597534 119.769104 
9619.410156 -1756.649902 117.000000 
9426.944336 -1580.185059 126.672478 
9565.099609 -1608.916260 124.197540 
9652.754883 -1841.671021 110.945892 
9721.311523 -1793.774902 111.509270 
9626.023438 -1592.507690 128.712234 
9799.730469 -1702.599976 127.000000 
9790.714844 -1639.449951 134.250000 
9712.480469 -1573.530884 139.879456 
9700.552734 -1661.987549 126.125000 
9799.730469 -1576.350098 141.500000 
9488.990234 -1373.749512 178.375763 
9628.632813 -1506.592041 144.646805 
9543.416016 -1499.459473 143.500259 
